253.6800 233.5200 273.8400
238.5600 235.2000 258.7200
297.3600 324.2400 356.1600
277.2000 282.2400 329.2800
297.3600 310.8000 356.1600
272.1600 258.7200 320.8800
262.0800 253.6800 294.0000
258.7200 258.7200 305.7600
300.7200 320.8800 354.4800
280.5600 288.9600 342.7200
258.7200 246.9600 265.4400
302.4000 322.5600 352.8000
262.0800 252.0000 189.8400
288.9600 319.2000 147.8400
257.0400 262.0800 183.1200
287.2800 287.2800 142.8000
265.4400 241.9200 273.8400
272.1600 278.8800 319.2000
252.0000 236.8800 245.2800
267.1200 262.0800 189.8400
252.0000 226.8000 265.4400
248.6400 240.2400 218.4000
260.4000 240.2400 287.2800
268.8000 241.9200 295.6800
252.0000 245.2800 287.2800
263.7600 257.0400 297.3600
257.0400 257.0400 199.9200
257.0400 250.3200 282.2400
250.3200 240.2400 282.2400
263.7600 292.3200 186.4800
285.6000 285.6000 183.1200
252.0000 241.9200 285.6000
277.2000 292.3200 341.0400
270.4800 290.6400 179.7600
285.6000 309.1200 144.4800
262.0800 260.4000 310.8000
270.4800 275.5200 315.8400
268.8000 246.9600 302.4000
294.0000 320.8800 352.8000
258.7200 268.8000 162.9600
253.6800 235.2000 262.0800
283.9200 287.2800 144.4800
265.4400 241.9200 211.6800
295.6800 302.4000 136.0800
260.4000 268.8000 168.0000
263.7600 238.5600 283.9200
265.4400 243.6000 208.3200
290.6400 312.4800 341.0400
255.3600 248.6400 295.6800
245.2800 243.6000 267.1200
258.7200 243.6000 211.6800
250.3200 246.9600 228.4800
283.9200 297.3600 141.1200
260.4000 268.8000 179.7600
260.4000 262.0800 181.4400
262.0800 282.2400 183.1200
292.3200 315.8400 346.0800
258.7200 275.5200 169.6800
265.4400 263.7600 309.1200
263.7600 253.6800 314.1600
273.8400 272.1600 315.8400
285.6000 299.0400 142.8000
287.2800 295.6800 181.4400
255.3600 238.5600 285.6000
267.1200 294.0000 157.9200
299.0400 319.2000 342.7200
277.2000 263.7600 315.8400
258.7200 272.1600 189.8400
273.8400 295.6800 184.8000
287.2800 294.0000 174.7200
250.3200 226.8000 255.3600
297.3600 319.2000 357.8400
265.4400 248.6400 294.0000
287.2800 300.7200 339.3600
263.7600 273.8400 159.6000
248.6400 241.9200 240.2400
277.2000 285.6000 178.0800
263.7600 263.7600 317.5200
267.1200 258.7200 191.5200
270.4800 277.2000 176.4000
250.3200 240.2400 277.2000
272.1600 250.3200 294.0000
252.0000 235.2000 273.8400
267.1200 285.6000 183.1200
273.8400 280.5600 322.5600
253.6800 235.2000 272.1600
267.1200 283.9200 169.6800
255.3600 241.9200 240.2400
253.6800 233.5200 262.0800
292.3200 319.2000 346.0800
270.4800 294.0000 141.1200
258.7200 272.1600 171.3600
275.5200 287.2800 334.3200
265.4400 258.7200 294.0000
265.4400 270.4800 327.6000
257.0400 262.0800 297.3600
241.9200 230.1600 238.5600
302.4000 314.1600 356.1600
275.5200 287.2800 339.3600
267.1200 257.0400 324.2400
277.2000 265.4400 325.9200
285.6000 297.3600 154.5600
270.4800 312.4800 344.4000
258.7200 285.6000 164.6400
262.0800 252.0000 295.6800
253.6800 233.5200 250.3200
255.3600 238.5600 278.8800
299.0400 315.8400 139.4400
245.2800 241.9200 245.2800
258.7200 270.4800 171.3600
263.7600 280.5600 166.3200
267.1200 255.3600 305.7600
257.0400 285.6000 168.0000
273.8400 294.0000 144.4800
260.4000 248.6400 225.1200
250.3200 243.6000 230.1600
267.1200 294.0000 162.9600
263.7600 255.3600 292.3200
287.2800 310.8000 356.1600
272.1600 253.6800 198.2400
272.1600 263.7600 325.9200
268.8000 246.9600 300.7200
260.4000 245.2800 213.3600
245.2800 241.9200 235.2000
287.2800 319.2000 147.8400
287.2800 310.8000 137.7600
260.4000 246.9600 275.5200
252.0000 245.2800 211.6800
280.5600 290.6400 337.6800
268.8000 257.0400 199.9200
252.0000 257.0400 287.2800
253.6800 255.3600 203.2800
245.2800 233.5200 235.2000
262.0800 248.6400 285.6000
277.2000 285.6000 336.0000
270.4800 248.6400 299.0400
265.4400 252.0000 297.3600
277.2000 288.9600 139.4400
262.0800 268.8000 191.5200
282.2400 309.1200 342.7200
285.6000 287.2800 142.8000
280.5600 300.7200 147.8400
294.0000 297.3600 151.2000
253.6800 238.5600 243.6000
260.4000 233.5200 275.5200
272.1600 252.0000 319.2000
280.5600 294.0000 336.0000
288.9600 309.1200 142.8000
292.3200 310.8000 339.3600
283.9200 297.3600 184.8000
262.0800 248.6400 287.2800
273.8400 272.1600 171.3600
263.7600 262.0800 191.5200
265.4400 267.1200 319.2000
260.4000 257.0400 302.4000
272.1600 257.0400 314.1600
262.0800 235.2000 277.2000
255.3600 230.1600 268.8000
273.8400 300.7200 147.8400
253.6800 245.2800 204.9600
258.7200 235.2000 243.6000
258.7200 236.8800 233.5200
297.3600 324.2400 347.7600
267.1200 241.9200 208.3200
257.0400 260.4000 198.2400
240.2400 238.5600 257.0400
270.4800 255.3600 319.2000
282.2400 268.8000 324.2400
295.6800 314.1600 356.1600
272.1600 272.1600 320.8800
268.8000 287.2800 151.2000
246.9600 233.5200 257.0400
297.3600 317.5200 346.0800
283.9200 299.0400 334.3200
265.4400 294.0000 161.2800
278.8800 265.4400 324.2400
273.8400 290.6400 178.0800
255.3600 243.6000 294.0000
285.6000 297.3600 179.7600
267.1200 268.8000 159.6000
252.0000 228.4800 258.7200
257.0400 282.2400 164.6400
260.4000 240.2400 204.9600
252.0000 246.9600 223.4400
258.7200 252.0000 300.7200
295.6800 329.2800 362.8800
277.2000 282.2400 186.4800
278.8800 277.2000 337.6800
277.2000 304.0800 346.0800
294.0000 304.0800 354.4800
277.2000 300.7200 144.4800
277.2000 278.8800 324.2400
273.8400 285.6000 154.5600
257.0400 231.8400 220.0800
263.7600 263.7600 307.4400
255.3600 231.8400 280.5600
277.2000 288.9600 334.3200
282.2400 273.8400 334.3200
255.3600 233.5200 267.1200
267.1200 278.8800 317.5200
257.0400 236.8800 238.5600
257.0400 240.2400 235.2000
270.4800 257.0400 312.4800
263.7600 245.2800 268.8000
294.0000 319.2000 344.4000
272.1600 285.6000 330.9600
268.8000 252.0000 312.4800
248.6400 231.8400 252.0000
282.2400 282.2400 178.0800
287.2800 285.6000 339.3600
262.0800 241.9200 268.8000
260.4000 252.0000 283.9200
267.1200 272.1600 324.2400
262.0800 243.6000 204.9600
267.1200 252.0000 299.0400
268.8000 287.2800 152.8800
255.3600 258.7200 193.2000
265.4400 257.0400 290.6400
253.6800 231.8400 255.3600
263.7600 245.2800 280.5600
268.8000 257.0400 295.6800
248.6400 231.8400 220.0800
273.8400 255.3600 315.8400
280.5600 299.0400 181.4400
285.6000 310.8000 149.5200
305.7600 315.8400 354.4800
262.0800 273.8400 174.7200
255.3600 245.2800 208.3200
240.2400 238.5600 240.2400
302.4000 310.8000 146.1600
246.9600 233.5200 258.7200
270.4800 285.6000 179.7600
253.6800 241.9200 213.3600
243.6000 241.9200 243.6000
275.5200 285.6000 337.6800
252.0000 243.6000 223.4400
273.8400 275.5200 334.3200
248.6400 235.2000 272.1600
278.8800 272.1600 324.2400
260.4000 282.2400 179.7600
257.0400 236.8800 228.4800
295.6800 317.5200 132.7200
246.9600 226.8000 257.0400
277.2000 262.0800 315.8400
258.7200 262.0800 309.1200
250.3200 235.2000 257.0400
258.7200 262.0800 292.3200
282.2400 295.6800 181.4400
243.6000 238.5600 263.7600
252.0000 245.2800 240.2400
260.4000 245.2800 272.1600
243.6000 241.9200 241.9200
265.4400 294.0000 159.6000
248.6400 233.5200 275.5200
288.9600 297.3600 152.8800
263.7600 277.2000 162.9600
253.6800 233.5200 253.6800
245.2800 238.5600 248.6400
260.4000 260.4000 302.4000
250.3200 241.9200 283.9200
277.2000 299.0400 179.7600
252.0000 235.2000 265.4400
250.3200 236.8800 287.2800
275.5200 275.5200 178.0800
263.7600 263.7600 161.2800
275.5200 299.0400 341.0400
258.7200 253.6800 290.6400
260.4000 287.2800 173.0400
258.7200 233.5200 218.4000
268.8000 278.8800 181.4400
292.3200 304.0800 341.0400
287.2800 305.7600 161.2800
257.0400 233.5200 240.2400
265.4400 245.2800 290.6400
267.1200 278.8800 171.3600
246.9600 240.2400 246.9600
282.2400 285.6000 339.3600
290.6400 305.7600 132.7200
285.6000 290.6400 336.0000
287.2800 292.3200 146.1600
252.0000 228.4800 235.2000
272.1600 287.2800 181.4400
253.6800 248.6400 272.1600
288.9600 310.8000 141.1200
257.0400 235.2000 245.2800
248.6400 233.5200 221.7600
277.2000 265.4400 315.8400
282.2400 288.9600 139.4400
245.2800 236.8800 253.6800
273.8400 278.8800 183.1200
255.3600 252.0000 223.4400
263.7600 240.2400 273.8400
273.8400 258.7200 315.8400
268.8000 253.6800 305.7600
282.2400 287.2800 337.6800
246.9600 241.9200 260.4000
263.7600 287.2800 168.0000
245.2800 238.5600 236.8800
268.8000 283.9200 166.3200
290.6400 305.7600 339.3600
257.0400 253.6800 193.2000
241.9200 230.1600 245.2800
250.3200 248.6400 288.9600
273.8400 277.2000 178.0800
268.8000 275.5200 168.0000
309.1200 287.2800 357.8400
245.2800 240.2400 272.1600
257.0400 248.6400 196.5600
253.6800 250.3200 193.2000
290.6400 315.8400 134.4000
290.6400 305.7600 357.8400
265.4400 270.4800 324.2400
277.2000 267.1200 324.2400
283.9200 282.2400 336.0000
270.4800 263.7600 309.1200
263.7600 246.9600 198.2400
258.7200 241.9200 226.8000
260.4000 248.6400 295.6800
255.3600 245.2800 196.5600
258.7200 270.4800 189.8400
270.4800 257.0400 322.5600
295.6800 295.6800 156.2400
258.7200 282.2400 166.3200
262.0800 272.1600 186.4800
255.3600 248.6400 267.1200
258.7200 260.4000 178.0800
245.2800 236.8800 263.7600
282.2400 277.2000 184.8000
260.4000 283.9200 173.0400
253.6800 230.1600 263.7600
275.5200 280.5600 161.2800
280.5600 285.6000 189.8400
240.2400 228.4800 238.5600
267.1200 246.9600 204.9600
272.1600 292.3200 189.8400
258.7200 241.9200 275.5200
248.6400 240.2400 277.2000
310.8000 320.8800 359.5200
243.6000 231.8400 257.0400
282.2400 312.4800 344.4000
285.6000 287.2800 332.6400
294.0000 297.3600 154.5600
250.3200 241.9200 241.9200
263.7600 257.0400 317.5200
268.8000 278.8800 168.0000
294.0000 317.5200 342.7200
268.8000 263.7600 319.2000
265.4400 288.9600 174.7200
273.8400 262.0800 310.8000
304.0800 310.8000 147.8400
282.2400 275.5200 332.6400
258.7200 250.3200 297.3600
288.9600 299.0400 351.1200
250.3200 228.4800 236.8800
280.5600 300.7200 351.1200
267.1200 292.3200 152.8800
241.9200 230.1600 235.2000
292.3200 317.5200 149.5200
260.4000 282.2400 169.6800
255.3600 253.6800 193.2000
292.3200 319.2000 144.4800
290.6400 315.8400 136.0800
258.7200 241.9200 210.0000
262.0800 246.9600 198.2400
252.0000 243.6000 228.4800
265.4400 275.5200 159.6000
263.7600 253.6800 201.6000
283.9200 295.6800 346.0800
260.4000 262.0800 324.2400
255.3600 241.9200 290.6400
267.1200 280.5600 179.7600
278.8800 280.5600 188.1600
292.3200 288.9600 173.0400
285.6000 302.4000 351.1200
257.0400 253.6800 282.2400
265.4400 275.5200 171.3600
295.6800 310.8000 342.7200
255.3600 245.2800 238.5600
248.6400 230.1600 221.7600
267.1200 278.8800 154.5600
294.0000 309.1200 147.8400
250.3200 236.8800 255.3600
267.1200 272.1600 171.3600
243.6000 233.5200 230.1600
282.2400 287.2800 186.4800
262.0800 253.6800 309.1200
260.4000 262.0800 307.4400
280.5600 295.6800 146.1600
258.7200 253.6800 199.9200
262.0800 275.5200 189.8400
262.0800 275.5200 184.8000
248.6400 235.2000 275.5200
263.7600 241.9200 277.2000
319.2000 295.6800 354.4800
285.6000 297.3600 346.0800
278.8800 285.6000 181.4400
282.2400 300.7200 179.7600
257.0400 245.2800 270.4800
252.0000 228.4800 225.1200
262.0800 241.9200 290.6400
238.5600 236.8800 262.0800
292.3200 292.3200 186.4800
248.6400 228.4800 233.5200
258.7200 248.6400 282.2400
270.4800 280.5600 339.3600
280.5600 292.3200 183.1200
287.2800 285.6000 183.1200
241.9200 236.8800 240.2400
265.4400 267.1200 191.5200
257.0400 240.2400 230.1600
253.6800 250.3200 198.2400
263.7600 283.9200 183.1200
263.7600 246.9600 287.2800
245.2800 235.2000 218.4000
252.0000 262.0800 193.2000
248.6400 235.2000 263.7600
263.7600 236.8800 278.8800
288.9600 310.8000 354.4800
287.2800 299.0400 334.3200
287.2800 300.7200 352.8000
278.8800 295.6800 188.1600
278.8800 267.1200 319.2000
268.8000 273.8400 330.9600
275.5200 283.9200 181.4400
262.0800 250.3200 294.0000
241.9200 248.6400 236.8800
248.6400 233.5200 231.8400
250.3200 250.3200 273.8400
265.4400 252.0000 314.1600
282.2400 310.8000 347.7600
241.9200 226.8000 246.9600
283.9200 288.9600 183.1200
288.9600 280.5600 183.1200
295.6800 312.4800 339.3600
248.6400 228.4800 230.1600
250.3200 231.8400 221.7600
295.6800 317.5200 147.8400
280.5600 282.2400 179.7600
262.0800 255.3600 315.8400
290.6400 315.8400 354.4800
260.4000 273.8400 173.0400
263.7600 273.8400 191.5200
287.2800 299.0400 152.8800
315.8400 290.6400 351.1200
250.3200 233.5200 228.4800
270.4800 283.9200 151.2000
263.7600 243.6000 282.2400
273.8400 290.6400 179.7600
272.1600 280.5600 327.6000
265.4400 273.8400 169.6800
265.4400 257.0400 314.1600
257.0400 238.5600 287.2800
252.0000 240.2400 225.1200
250.3200 231.8400 226.8000
262.0800 241.9200 206.6400
288.9600 312.4800 339.3600
288.9600 310.8000 337.6800
270.4800 295.6800 142.8000
294.0000 288.9600 144.4800
253.6800 226.8000 238.5600
283.9200 307.4400 351.1200
240.2400 235.2000 252.0000
258.7200 270.4800 162.9600
275.5200 272.1600 334.3200
260.4000 258.7200 302.4000
263.7600 241.9200 278.8800
288.9600 315.8400 134.4000
290.6400 299.0400 164.6400
258.7200 248.6400 198.2400
267.1200 241.9200 294.0000
285.6000 305.7600 132.7200
253.6800 248.6400 275.5200
241.9200 235.2000 250.3200
257.0400 235.2000 282.2400
287.2800 300.7200 142.8000
265.4400 265.4400 168.0000
246.9600 233.5200 255.3600
260.4000 235.2000 278.8800
257.0400 270.4800 161.2800
263.7600 243.6000 201.6000
263.7600 238.5600 277.2000
268.8000 265.4400 307.4400
263.7600 278.8800 161.2800
270.4800 273.8400 162.9600
277.2000 275.5200 181.4400
278.8800 297.3600 183.1200
278.8800 297.3600 147.8400
280.5600 288.9600 146.1600
260.4000 241.9200 198.2400
285.6000 287.2800 336.0000
275.5200 290.6400 188.1600
262.0800 263.7600 315.8400
268.8000 287.2800 181.4400
265.4400 245.2800 285.6000
245.2800 236.8800 257.0400
287.2800 317.5200 137.7600
283.9200 310.8000 144.4800
265.4400 250.3200 297.3600
273.8400 288.9600 191.5200
277.2000 295.6800 332.6400
240.2400 233.5200 236.8800
263.7600 235.2000 283.9200
270.4800 287.2800 152.8800
257.0400 240.2400 228.4800
295.6800 307.4400 149.5200
238.5600 233.5200 233.5200
273.8400 278.8800 320.8800
243.6000 235.2000 230.1600
273.8400 280.5600 319.2000
275.5200 288.9600 337.6800
277.2000 285.6000 141.1200
245.2800 226.8000 246.9600
299.0400 314.1600 354.4800
270.4800 262.0800 322.5600
255.3600 246.9600 265.4400
240.2400 228.4800 246.9600
262.0800 275.5200 186.4800
257.0400 231.8400 241.9200
260.4000 280.5600 173.0400
282.2400 297.3600 184.8000
294.0000 305.7600 342.7200
290.6400 299.0400 179.7600
283.9200 287.2800 174.7200
262.0800 252.0000 294.0000
287.2800 285.6000 184.8000
252.0000 236.8800 260.4000
265.4400 240.2400 295.6800
287.2800 285.6000 336.0000
257.0400 233.5200 220.0800
273.8400 275.5200 320.8800
290.6400 304.0800 341.0400
253.6800 246.9600 292.3200
283.9200 282.2400 334.3200
265.4400 278.8800 183.1200
267.1200 280.5600 319.2000
263.7600 240.2400 270.4800
273.8400 278.8800 325.9200
250.3200 228.4800 246.9600
275.5200 300.7200 342.7200
262.0800 257.0400 320.8800
258.7200 260.4000 184.8000
278.8800 280.5600 330.9600
248.6400 240.2400 236.8800
275.5200 287.2800 139.4400
253.6800 230.1600 243.6000
263.7600 248.6400 193.2000
250.3200 240.2400 248.6400
278.8800 283.9200 168.0000
255.3600 253.6800 297.3600
294.0000 295.6800 184.8000
265.4400 263.7600 305.7600
280.5600 275.5200 186.4800
278.8800 304.0800 344.4000
309.1200 295.6800 354.4800
258.7200 246.9600 203.2800
268.8000 262.0800 169.6800
253.6800 228.4800 260.4000
260.4000 233.5200 236.8800
300.7200 319.2000 346.0800
265.4400 267.1200 168.0000
255.3600 230.1600 243.6000
283.9200 307.4400 347.7600
297.3600 320.8800 139.4400
285.6000 319.2000 146.1600
262.0800 257.0400 310.8000
248.6400 241.9200 225.1200
277.2000 270.4800 329.2800
257.0400 270.4800 189.8400
260.4000 280.5600 156.2400
245.2800 235.2000 260.4000
292.3200 309.1200 147.8400
287.2800 300.7200 349.4400
275.5200 282.2400 332.6400
250.3200 241.9200 243.6000
246.9600 243.6000 272.1600
288.9600 282.2400 184.8000
258.7200 243.6000 203.2800
275.5200 285.6000 181.4400
245.2800 231.8400 231.8400
283.9200 300.7200 179.7600
272.1600 273.8400 157.9200
283.9200 297.3600 142.8000
257.0400 257.0400 193.2000
288.9600 304.0800 354.4800
280.5600 292.3200 147.8400
280.5600 300.7200 181.4400
253.6800 255.3600 287.2800
265.4400 241.9200 208.3200
250.3200 240.2400 278.8800
260.4000 243.6000 226.8000
275.5200 270.4800 319.2000
243.6000 238.5600 230.1600
267.1200 275.5200 186.4800
262.0800 235.2000 287.2800
280.5600 288.9600 184.8000
267.1200 273.8400 169.6800
260.4000 235.2000 221.7600
252.0000 240.2400 218.4000
294.0000 302.4000 137.7600
283.9200 302.4000 349.4400
252.0000 245.2800 233.5200
267.1200 258.7200 320.8800
258.7200 238.5600 210.0000
260.4000 260.4000 201.6000
307.4400 287.2800 357.8400
292.3200 320.8800 351.1200
257.0400 258.7200 193.2000
294.0000 314.1600 344.4000
262.0800 245.2800 275.5200
294.0000 307.4400 151.2000
272.1600 262.0800 317.5200
262.0800 255.3600 322.5600
260.4000 252.0000 300.7200
273.8400 255.3600 199.9200
255.3600 230.1600 258.7200
257.0400 253.6800 283.9200
285.6000 300.7200 334.3200
265.4400 262.0800 320.8800
260.4000 248.6400 198.2400
241.9200 238.5600 250.3200
277.2000 280.5600 325.9200
263.7600 257.0400 309.1200
253.6800 228.4800 220.0800
257.0400 240.2400 287.2800
283.9200 297.3600 151.2000
257.0400 235.2000 273.8400
246.9600 235.2000 231.8400
302.4000 317.5200 349.4400
275.5200 282.2400 181.4400
278.8800 300.7200 147.8400
240.2400 233.5200 250.3200
258.7200 238.5600 267.1200
290.6400 302.4000 341.0400
268.8000 255.3600 304.0800
267.1200 262.0800 317.5200
258.7200 240.2400 240.2400
262.0800 250.3200 299.0400
282.2400 314.1600 346.0800
302.4000 317.5200 352.8000
270.4800 260.4000 191.5200
262.0800 236.8800 294.0000
262.0800 258.7200 299.0400
310.8000 288.9600 351.1200
300.7200 315.8400 141.1200
273.8400 270.4800 161.2800
280.5600 288.9600 174.7200
277.2000 288.9600 339.3600
263.7600 252.0000 304.0800
282.2400 290.6400 146.1600
287.2800 304.0800 356.1600
260.4000 240.2400 267.1200
257.0400 243.6000 206.6400
250.3200 236.8800 241.9200
287.2800 309.1200 147.8400
265.4400 275.5200 329.2800
248.6400 240.2400 260.4000
270.4800 294.0000 184.8000
255.3600 241.9200 210.0000
270.4800 282.2400 179.7600
283.9200 292.3200 173.0400
275.5200 267.1200 325.9200
262.0800 245.2800 280.5600
260.4000 262.0800 295.6800
257.0400 275.5200 174.7200
263.7600 277.2000 322.5600
260.4000 255.3600 297.3600
275.5200 300.7200 144.4800
267.1200 270.4800 314.1600
294.0000 319.2000 149.5200
272.1600 275.5200 179.7600
240.2400 231.8400 233.5200
287.2800 312.4800 139.4400
255.3600 246.9600 225.1200
253.6800 233.5200 245.2800
243.6000 243.6000 241.9200
280.5600 287.2800 191.5200
267.1200 255.3600 324.2400
275.5200 282.2400 179.7600
294.0000 287.2800 183.1200
257.0400 280.5600 168.0000
253.6800 248.6400 196.5600
258.7200 250.3200 194.8800
257.0400 246.9600 198.2400
282.2400 287.2800 339.3600
292.3200 302.4000 352.8000
260.4000 241.9200 288.9600
265.4400 245.2800 211.6800
246.9600 231.8400 235.2000
255.3600 270.4800 189.8400
257.0400 233.5200 263.7600
258.7200 236.8800 275.5200
263.7600 240.2400 283.9200
299.0400 324.2400 351.1200
275.5200 280.5600 183.1200
262.0800 252.0000 297.3600
314.1600 288.9600 352.8000
292.3200 299.0400 341.0400
300.7200 312.4800 146.1600
275.5200 299.0400 342.7200
272.1600 282.2400 327.6000
262.0800 268.8000 319.2000
294.0000 295.6800 154.5600
262.0800 258.7200 199.9200
263.7600 238.5600 273.8400
263.7600 282.2400 166.3200
288.9600 309.1200 137.7600
255.3600 267.1200 186.4800
263.7600 241.9200 268.8000
262.0800 273.8400 169.6800
263.7600 290.6400 178.0800
290.6400 317.5200 342.7200
243.6000 231.8400 246.9600
260.4000 238.5600 283.9200
262.0800 252.0000 287.2800
260.4000 240.2400 294.0000
248.6400 235.2000 243.6000
297.3600 317.5200 357.8400
280.5600 265.4400 324.2400
263.7600 270.4800 320.8800
272.1600 253.6800 320.8800
280.5600 302.4000 347.7600
257.0400 248.6400 194.8800
253.6800 231.8400 267.1200
262.0800 248.6400 294.0000
272.1600 255.3600 199.9200
268.8000 245.2800 297.3600
277.2000 273.8400 329.2800
270.4800 257.0400 319.2000
288.9600 305.7600 134.4000
300.7200 317.5200 144.4800
275.5200 275.5200 325.9200
270.4800 252.0000 300.7200
260.4000 245.2800 196.5600
262.0800 258.7200 292.3200
295.6800 312.4800 354.4800
263.7600 253.6800 285.6000
283.9200 305.7600 339.3600
267.1200 270.4800 324.2400
258.7200 278.8800 166.3200
260.4000 262.0800 196.5600
250.3200 246.9600 233.5200
265.4400 287.2800 179.7600
277.2000 275.5200 324.2400
265.4400 258.7200 181.4400
300.7200 302.4000 151.2000
288.9600 280.5600 181.4400
257.0400 255.3600 295.6800
285.6000 290.6400 183.1200
294.0000 305.7600 339.3600
299.0400 310.8000 342.7200
297.3600 317.5200 147.8400
258.7200 280.5600 169.6800
263.7600 268.8000 320.8800
257.0400 243.6000 295.6800
268.8000 267.1200 161.2800
310.8000 320.8800 361.2000
258.7200 238.5600 285.6000
255.3600 233.5200 278.8800
252.0000 241.9200 243.6000
272.1600 241.9200 294.0000
268.8000 282.2400 179.7600
290.6400 282.2400 184.8000
263.7600 252.0000 305.7600
258.7200 238.5600 236.8800
252.0000 228.4800 248.6400
267.1200 280.5600 176.4000
262.0800 268.8000 162.9600
255.3600 255.3600 186.4800
267.1200 287.2800 151.2000
265.4400 275.5200 184.8000
248.6400 241.9200 262.0800
260.4000 241.9200 210.0000
260.4000 246.9600 194.8800
277.2000 267.1200 317.5200
263.7600 257.0400 203.2800
257.0400 258.7200 295.6800
258.7200 248.6400 201.6000
257.0400 238.5600 221.7600
260.4000 277.2000 173.0400
273.8400 253.6800 312.4800
257.0400 235.2000 228.4800
288.9600 310.8000 341.0400
258.7200 241.9200 272.1600
275.5200 290.6400 142.8000
243.6000 236.8800 220.0800
267.1200 273.8400 156.2400
287.2800 288.9600 142.8000
268.8000 252.0000 299.0400
288.9600 309.1200 339.3600
290.6400 317.5200 356.1600
255.3600 240.2400 225.1200
278.8800 290.6400 334.3200
248.6400 230.1600 220.0800
290.6400 312.4800 342.7200
267.1200 252.0000 300.7200
280.5600 277.2000 188.1600
288.9600 307.4400 154.5600
255.3600 245.2800 272.1600
257.0400 246.9600 196.5600
248.6400 230.1600 225.1200
262.0800 240.2400 220.0800
300.7200 317.5200 356.1600
257.0400 231.8400 231.8400
277.2000 273.8400 336.0000
245.2800 243.6000 243.6000
265.4400 260.4000 194.8800
262.0800 241.9200 201.6000
277.2000 277.2000 188.1600
294.0000 320.8800 141.1200
246.9600 245.2800 241.9200
285.6000 297.3600 183.1200
265.4400 285.6000 174.7200
277.2000 283.9200 337.6800
250.3200 233.5200 230.1600
260.4000 275.5200 161.2800
241.9200 233.5200 258.7200
290.6400 288.9600 144.4800
267.1200 255.3600 307.4400
258.7200 233.5200 241.9200
255.3600 231.8400 258.7200
265.4400 243.6000 290.6400
292.3200 319.2000 146.1600
260.4000 240.2400 292.3200
280.5600 297.3600 346.0800
248.6400 246.9600 231.8400
270.4800 278.8800 334.3200
260.4000 235.2000 220.0800
263.7600 275.5200 189.8400
267.1200 252.0000 314.1600
267.1200 270.4800 176.4000
268.8000 268.8000 169.6800
250.3200 233.5200 267.1200
255.3600 243.6000 206.6400
280.5600 278.8800 336.0000
246.9600 240.2400 283.9200
263.7600 241.9200 211.6800
297.3600 317.5200 141.1200
280.5600 309.1200 346.0800
257.0400 236.8800 282.2400
258.7200 235.2000 221.7600
288.9600 283.9200 334.3200
267.1200 273.8400 186.4800
270.4800 260.4000 189.8400
272.1600 270.4800 327.6000
288.9600 304.0800 352.8000
255.3600 277.2000 166.3200
287.2800 312.4800 339.3600
295.6800 319.2000 144.4800
273.8400 265.4400 166.3200
273.8400 275.5200 317.5200
243.6000 235.2000 236.8800
267.1200 260.4000 307.4400
295.6800 320.8800 347.7600
280.5600 277.2000 184.8000
275.5200 277.2000 319.2000
322.5600 322.5600 129.3600
272.1600 292.3200 181.4400
243.6000 233.5200 231.8400
253.6800 238.5600 288.9600
263.7600 253.6800 302.4000
307.4400 285.6000 352.8000
278.8800 287.2800 141.1200
262.0800 238.5600 290.6400
252.0000 243.6000 235.2000
262.0800 257.0400 179.7600
268.8000 255.3600 307.4400
272.1600 294.0000 168.0000
252.0000 230.1600 238.5600
250.3200 240.2400 246.9600
322.5600 320.8800 129.3600
278.8800 268.8000 320.8800
275.5200 288.9600 178.0800
253.6800 246.9600 268.8000
262.0800 262.0800 312.4800
265.4400 272.1600 193.2000
275.5200 299.0400 337.6800
304.0800 324.2400 349.4400
287.2800 304.0800 134.4000
263.7600 240.2400 282.2400
245.2800 228.4800 257.0400
267.1200 241.9200 201.6000
292.3200 312.4800 352.8000
262.0800 235.2000 226.8000
288.9600 317.5200 151.2000
243.6000 231.8400 230.1600
248.6400 228.4800 246.9600
263.7600 235.2000 287.2800
265.4400 238.5600 283.9200
253.6800 250.3200 220.0800
248.6400 231.8400 218.4000
262.0800 255.3600 312.4800
268.8000 268.8000 173.0400
267.1200 262.0800 307.4400
268.8000 287.2800 147.8400
287.2800 319.2000 144.4800
246.9600 241.9200 263.7600
290.6400 307.4400 339.3600
305.7600 285.6000 351.1200
273.8400 278.8800 322.5600
257.0400 245.2800 290.6400
272.1600 278.8800 176.4000
287.2800 309.1200 356.1600
252.0000 233.5200 277.2000
260.4000 245.2800 275.5200
263.7600 248.6400 283.9200
272.1600 275.5200 315.8400
267.1200 252.0000 315.8400
287.2800 314.1600 137.7600
253.6800 240.2400 225.1200
265.4400 265.4400 198.2400
260.4000 236.8800 275.5200
277.2000 282.2400 178.0800
262.0800 235.2000 278.8800
255.3600 235.2000 245.2800
267.1200 240.2400 283.9200
248.6400 243.6000 235.2000
304.0800 312.4800 351.1200
262.0800 273.8400 188.1600
287.2800 317.5200 134.4000
257.0400 245.2800 213.3600
262.0800 277.2000 162.9600
273.8400 268.8000 329.2800
262.0800 248.6400 282.2400
236.8800 238.5600 238.5600
270.4800 255.3600 310.8000
253.6800 230.1600 236.8800
277.2000 288.9600 341.0400
300.7200 309.1200 344.4000
245.2800 226.8000 258.7200
307.4400 295.6800 356.1600
315.8400 292.3200 356.1600
275.5200 275.5200 176.4000
262.0800 268.8000 189.8400
275.5200 290.6400 178.0800
272.1600 294.0000 183.1200
292.3200 322.5600 351.1200
260.4000 255.3600 288.9600
268.8000 280.5600 322.5600
273.8400 283.9200 334.3200
270.4800 294.0000 164.6400
288.9600 309.1200 336.0000
268.8000 265.4400 322.5600
288.9600 297.3600 176.4000
262.0800 252.0000 304.0800
253.6800 255.3600 295.6800
262.0800 250.3200 188.1600
245.2800 240.2400 236.8800
260.4000 260.4000 297.3600
268.8000 263.7600 310.8000
272.1600 295.6800 166.3200
275.5200 285.6000 156.2400
257.0400 233.5200 272.1600
265.4400 253.6800 314.1600
304.0800 315.8400 349.4400
270.4800 248.6400 292.3200
258.7200 243.6000 275.5200
246.9600 240.2400 267.1200
285.6000 299.0400 139.4400
280.5600 287.2800 141.1200
263.7600 233.5200 287.2800
252.0000 230.1600 253.6800
282.2400 292.3200 341.0400
245.2800 231.8400 255.3600
280.5600 304.0800 352.8000
288.9600 302.4000 159.6000
257.0400 260.4000 309.1200
285.6000 307.4400 339.3600
294.0000 329.2800 344.4000
275.5200 294.0000 342.7200
250.3200 231.8400 255.3600
265.4400 240.2400 277.2000
257.0400 233.5200 268.8000
268.8000 288.9600 159.6000
248.6400 235.2000 258.7200
268.8000 275.5200 330.9600
258.7200 238.5600 228.4800
282.2400 280.5600 176.4000
265.4400 277.2000 152.8800
260.4000 252.0000 188.1600
272.1600 277.2000 179.7600
263.7600 241.9200 295.6800
277.2000 282.2400 334.3200
260.4000 240.2400 221.7600
257.0400 238.5600 267.1200
267.1200 263.7600 179.7600
252.0000 238.5600 283.9200
280.5600 299.0400 344.4000
299.0400 319.2000 147.8400
258.7200 283.9200 168.0000
292.3200 312.4800 351.1200
277.2000 273.8400 337.6800
287.2800 287.2800 144.4800
250.3200 240.2400 272.1600
267.1200 292.3200 156.2400
272.1600 275.5200 157.9200
285.6000 295.6800 346.0800
278.8800 275.5200 184.8000
273.8400 277.2000 337.6800
257.0400 236.8800 231.8400
243.6000 236.8800 241.9200
