159.7200 200.6400 145.2000
142.5600 184.8000 195.3600
207.2400 153.1200 221.7600
159.7200 200.6400 139.9200
207.2400 172.9200 132.0000
195.3600 139.9200 211.2000
201.9600 176.8800 205.9200
89.7600 188.7600 172.9200
150.4800 158.4000 159.7200
89.7600 195.3600 170.2800
191.4000 165.0000 143.8800
215.1600 143.8800 227.0400
207.2400 139.9200 203.2800
110.8800 201.9600 195.3600
198.0000 133.3200 220.4400
138.6000 167.6400 121.4400
188.7600 170.2800 227.0400
113.5200 208.5600 151.8000
155.7600 155.7600 165.0000
216.4800 149.1600 221.7600
134.6400 171.6000 126.7200
166.3200 159.7200 165.0000
207.2400 146.5200 221.7600
113.5200 138.6000 150.4800
141.2400 234.9600 176.8800
132.0000 172.9200 114.8400
176.8800 161.0400 219.1200
109.5600 135.9600 183.4800
121.4400 143.8800 161.0400
108.2400 150.4800 180.8400
170.2800 147.8400 154.4400
186.1200 130.6800 114.8400
179.5200 178.2000 231.0000
150.4800 157.0800 106.9200
89.7600 204.6000 157.0800
100.3200 192.7200 171.6000
141.2400 219.1200 192.7200
162.3600 186.1200 211.2000
124.0800 186.1200 121.4400
126.7200 171.6000 167.6400
102.9600 207.2400 186.1200
158.4000 190.0800 159.7200
128.0400 109.5600 170.2800
182.1600 165.0000 217.8000
194.0400 179.5200 133.3200
153.1200 176.8800 129.3600
180.8400 187.4400 147.8400
126.7200 176.8800 135.9600
151.8000 145.2000 194.0400
203.2800 141.2400 232.3200
213.8400 129.3600 194.0400
109.5600 167.6400 178.2000
168.9600 157.0800 105.6000
203.2800 191.4000 112.2000
145.2000 128.0400 142.5600
184.8000 190.0800 205.9200
118.8000 159.7200 114.8400
196.6800 220.4400 157.0800
85.8000 220.4400 153.1200
176.8800 165.0000 187.4400
109.5600 138.6000 174.2400
135.9600 200.6400 194.0400
196.6800 138.6000 195.3600
213.8400 170.2800 130.6800
191.4000 142.5600 124.0800
139.9200 125.4000 146.5200
234.9600 159.7200 203.2800
170.2800 154.4400 207.2400
233.6400 139.9200 203.2800
179.5200 195.3600 96.3600
153.1200 158.4000 208.5600
155.7600 157.0800 208.5600
175.5600 146.5200 139.9200
129.3600 179.5200 132.0000
196.6800 142.5600 196.6800
134.6400 187.4400 114.8400
170.2800 195.3600 139.9200
213.8400 137.2800 220.4400
134.6400 134.6400 143.8800
180.8400 234.9600 147.8400
168.9600 204.6000 112.2000
170.2800 139.9200 200.6400
203.2800 229.6800 133.3200
142.5600 188.7600 179.5200
163.6800 215.1600 195.3600
129.3600 141.2400 150.4800
125.4000 145.2000 176.8800
142.5600 201.9600 198.0000
145.2000 174.2400 184.8000
145.2000 171.6000 147.8400
147.8400 167.6400 179.5200
95.0400 201.9600 151.8000
174.2400 135.9600 208.5600
154.4400 147.8400 168.9600
209.8800 138.6000 200.6400
195.3600 149.1600 225.7200
219.1200 159.7200 200.6400
143.8800 162.3600 154.4400
174.2400 172.9200 178.2000
124.0800 166.3200 113.5200
159.7200 234.9600 184.8000
166.3200 126.7200 121.4400
187.4400 137.2800 213.8400
120.1200 157.0800 176.8800
180.8400 139.9200 124.0800
95.0400 192.7200 159.7200
159.7200 183.4800 165.0000
191.4000 172.9200 172.9200
167.6400 165.0000 113.5200
124.0800 178.2000 167.6400
236.2800 161.0400 205.9200
122.7600 175.5600 172.9200
199.3200 180.8400 205.9200
153.1200 133.3200 184.8000
165.0000 184.8000 195.3600
178.2000 167.6400 121.4400
139.9200 166.3200 183.4800
220.4400 141.2400 211.2000
104.2800 198.0000 190.0800
228.3600 138.6000 204.6000
167.6400 200.6400 151.8000
161.0400 162.3600 143.8800
108.2400 184.8000 175.5600
172.9200 143.8800 124.0800
110.8800 223.0800 162.3600
91.0800 187.4400 167.6400
229.6800 133.3200 192.7200
168.9600 155.7600 154.4400
172.9200 175.5600 228.3600
165.0000 178.2000 109.5600
175.5600 143.8800 215.1600
121.4400 113.5200 178.2000
109.5600 221.7600 195.3600
175.5600 165.0000 163.6800
151.8000 201.9600 199.3200
162.3600 138.6000 199.3200
124.0800 174.2400 203.2800
176.8800 170.2800 191.4000
165.0000 128.0400 137.2800
200.6400 196.6800 120.1200
174.2400 198.0000 108.2400
166.3200 153.1200 155.7600
133.3200 138.6000 174.2400
205.9200 130.6800 201.9600
209.8800 142.5600 219.1200
149.1600 138.6000 125.4000
190.0800 174.2400 209.8800
159.7200 190.0800 163.6800
167.6400 157.0800 165.0000
187.4400 146.5200 211.2000
100.3200 232.3200 151.8000
162.3600 162.3600 223.0800
150.4800 175.5600 129.3600
172.9200 154.4400 192.7200
178.2000 165.0000 183.4800
191.4000 154.4400 114.8400
110.8800 209.8800 176.8800
126.7200 133.3200 198.0000
128.0400 120.1200 151.8000
122.7600 186.1200 120.1200
161.0400 216.4800 134.6400
229.6800 122.7600 200.6400
106.9200 163.6800 168.9600
168.9600 122.7600 122.7600
196.6800 168.9600 130.6800
151.8000 188.7600 155.7600
225.7200 138.6000 220.4400
150.4800 172.9200 184.8000
207.2400 211.2000 124.0800
149.1600 150.4800 132.0000
183.4800 199.3200 149.1600
165.0000 224.4000 130.6800
233.6400 147.8400 220.4400
167.6400 183.4800 158.4000
104.2800 208.5600 172.9200
159.7200 154.4400 150.4800
92.4000 200.6400 154.4400
194.0400 172.9200 221.7600
101.6400 203.2800 170.2800
100.3200 188.7600 172.9200
124.0800 108.2400 158.4000
166.3200 179.5200 130.6800
159.7200 225.7200 133.3200
191.4000 215.1600 129.3600
161.0400 147.8400 165.0000
190.0800 212.5200 138.6000
153.1200 143.8800 191.4000
180.8400 176.8800 194.0400
168.9600 232.3200 162.3600
113.5200 183.4800 155.7600
182.1600 191.4000 150.4800
121.4400 134.6400 209.8800
175.5600 146.5200 122.7600
184.8000 223.0800 114.8400
195.3600 172.9200 227.0400
174.2400 153.1200 157.0800
118.8000 171.6000 203.2800
188.7600 142.5600 139.9200
159.7200 216.4800 191.4000
158.4000 142.5600 188.7600
195.3600 166.3200 108.2400
110.8800 110.8800 141.2400
237.6000 150.4800 204.6000
196.6800 138.6000 211.2000
134.6400 145.2000 194.0400
225.7200 106.9200 194.0400
195.3600 176.8800 203.2800
163.6800 125.4000 125.4000
161.0400 184.8000 93.7200
175.5600 168.9600 217.8000
153.1200 190.0800 159.7200
146.5200 166.3200 114.8400
161.0400 122.7600 188.7600
158.4000 175.5600 190.0800
150.4800 179.5200 137.2800
163.6800 201.9600 132.0000
130.6800 138.6000 187.4400
171.6000 151.8000 151.8000
117.4800 178.2000 170.2800
194.0400 178.2000 221.7600
238.9200 151.8000 204.6000
171.6000 233.6400 159.7200
184.8000 215.1600 122.7600
165.0000 165.0000 183.4800
191.4000 137.2800 198.0000
245.5200 126.7200 201.9600
168.9600 150.4800 151.8000
231.0000 137.2800 201.9600
157.0800 150.4800 114.8400
172.9200 220.4400 166.3200
209.8800 118.8000 207.2400
184.8000 198.0000 178.2000
188.7600 184.8000 108.2400
114.8400 184.8000 204.6000
158.4000 137.2800 155.7600
157.0800 209.8800 145.2000
96.3600 201.9600 166.3200
198.0000 190.0800 141.2400
175.5600 149.1600 153.1200
116.1600 228.3600 195.3600
196.6800 174.2400 124.0800
117.4800 141.2400 167.6400
96.3600 219.1200 158.4000
138.6000 166.3200 116.1600
196.6800 154.4400 133.3200
207.2400 176.8800 151.8000
153.1200 187.4400 139.9200
186.1200 176.8800 221.7600
142.5600 159.7200 198.0000
129.3600 192.7200 194.0400
167.6400 154.4400 100.3200
158.4000 154.4400 108.2400
213.8400 142.5600 212.5200
191.4000 166.3200 232.3200
159.7200 213.8400 174.2400
176.8800 146.5200 151.8000
191.4000 184.8000 108.2400
147.8400 165.0000 116.1600
195.3600 150.4800 195.3600
149.1600 227.0400 180.8400
147.8400 188.7600 184.8000
138.6000 139.9200 138.6000
120.1200 224.4000 176.8800
174.2400 147.8400 192.7200
229.6800 129.3600 191.4000
200.6400 142.5600 221.7600
179.5200 145.2000 132.0000
157.0800 208.5600 147.8400
199.3200 147.8400 225.7200
178.2000 163.6800 199.3200
175.5600 147.8400 124.0800
162.3600 219.1200 187.4400
137.2800 163.6800 171.6000
162.3600 212.5200 129.3600
133.3200 183.4800 113.5200
150.4800 149.1600 204.6000
113.5200 180.8400 205.9200
122.7600 176.8800 124.0800
114.8400 176.8800 205.9200
141.2400 162.3600 110.8800
166.3200 165.0000 195.3600
128.0400 124.0800 163.6800
145.2000 157.0800 174.2400
194.0400 137.2800 192.7200
178.2000 172.9200 213.8400
212.5200 147.8400 219.1200
149.1600 139.9200 159.7200
221.7600 106.9200 183.4800
89.7600 192.7200 162.3600
183.4800 162.3600 220.4400
153.1200 155.7600 190.0800
176.8800 183.4800 122.7600
223.0800 106.9200 195.3600
199.3200 186.1200 208.5600
190.0800 139.9200 179.5200
161.0400 175.5600 110.8800
128.0400 137.2800 147.8400
142.5600 165.0000 257.4000
157.0800 203.2800 139.9200
170.2800 223.0800 151.8000
108.2400 221.7600 174.2400
212.5200 154.4400 134.6400
201.9600 162.3600 130.6800
165.0000 168.9600 225.7200
211.2000 110.8800 186.1200
145.2000 163.6800 178.2000
141.2400 182.1600 168.9600
232.3200 129.3600 203.2800
212.5200 130.6800 194.0400
121.4400 183.4800 174.2400
125.4000 171.6000 120.1200
195.3600 157.0800 215.1600
187.4400 157.0800 204.6000
110.8800 170.2800 184.8000
128.0400 174.2400 151.8000
143.8800 190.0800 180.8400
166.3200 186.1200 175.5600
130.6800 145.2000 180.8400
178.2000 143.8800 195.3600
91.0800 196.6800 157.0800
154.4400 176.8800 175.5600
145.2000 186.1200 178.2000
204.6000 158.4000 113.5200
158.4000 139.9200 207.2400
100.3200 187.4400 166.3200
130.6800 170.2800 116.1600
157.0800 149.1600 220.4400
88.4400 225.7200 158.4000
211.2000 175.5600 132.0000
232.3200 128.0400 200.6400
122.7600 138.6000 162.3600
178.2000 171.6000 110.8800
204.6000 125.4000 184.8000
133.3200 194.0400 180.8400
149.1600 186.1200 153.1200
201.9600 128.0400 200.6400
203.2800 184.8000 135.9600
154.4400 168.9600 178.2000
138.6000 163.6800 150.4800
180.8400 225.7200 163.6800
150.4800 198.0000 145.2000
153.1200 190.0800 175.5600
155.7600 154.4400 104.2800
120.1200 137.2800 157.0800
166.3200 183.4800 153.1200
195.3600 203.2800 118.8000
188.7600 154.4400 205.9200
118.8000 165.0000 114.8400
216.4800 116.1600 188.7600
207.2400 126.7200 201.9600
122.7600 188.7600 199.3200
134.6400 130.6800 134.6400
150.4800 158.4000 180.8400
117.4800 200.6400 184.8000
172.9200 227.0400 130.6800
178.2000 192.7200 151.8000
114.8400 178.2000 190.0800
179.5200 157.0800 215.1600
172.9200 182.1600 223.0800
166.3200 150.4800 215.1600
149.1600 166.3200 171.6000
225.7200 143.8800 231.0000
159.7200 180.8400 187.4400
134.6400 216.4800 179.5200
153.1200 212.5200 146.5200
167.6400 157.0800 162.3600
228.3600 149.1600 196.6800
180.8400 143.8800 203.2800
133.3200 162.3600 170.2800
176.8800 183.4800 200.6400
203.2800 199.3200 122.7600
120.1200 112.2000 166.3200
100.3200 228.3600 168.9600
161.0400 180.8400 194.0400
157.0800 196.6800 170.2800
186.1200 159.7200 142.5600
203.2800 145.2000 215.1600
133.3200 163.6800 153.1200
162.3600 211.2000 128.0400
200.6400 205.9200 147.8400
241.5600 138.6000 212.5200
118.8000 139.9200 163.6800
186.1200 203.2800 146.5200
175.5600 149.1600 155.7600
221.7600 153.1200 207.2400
163.6800 147.8400 163.6800
171.6000 165.0000 195.3600
126.7200 194.0400 157.0800
122.7600 209.8800 211.2000
134.6400 220.4400 159.7200
142.5600 179.5200 167.6400
108.2400 155.7600 190.0800
88.4400 229.6800 137.2800
151.8000 161.0400 192.7200
157.0800 184.8000 219.1200
182.1600 143.8800 203.2800
237.6000 145.2000 203.2800
220.4400 126.7200 205.9200
158.4000 172.9200 162.3600
183.4800 227.0400 118.8000
154.4400 188.7600 158.4000
128.0400 124.0800 188.7600
172.9200 219.1200 121.4400
187.4400 209.8800 157.0800
233.6400 129.3600 195.3600
200.6400 178.2000 213.8400
180.8400 142.5600 203.2800
176.8800 188.7600 158.4000
162.3600 150.4800 142.5600
150.4800 213.8400 204.6000
89.7600 224.4000 166.3200
233.6400 141.2400 229.6800
154.4400 113.5200 142.5600
104.2800 240.2400 157.0800
167.6400 159.7200 182.1600
171.6000 162.3600 138.6000
147.8400 142.5600 109.5600
106.9200 149.1600 176.8800
141.2400 215.1600 194.0400
124.0800 151.8000 178.2000
154.4400 161.0400 199.3200
200.6400 157.0800 217.8000
186.1200 135.9600 215.1600
200.6400 142.5600 201.9600
105.6000 228.3600 166.3200
145.2000 176.8800 126.7200
153.1200 151.8000 186.1200
145.2000 172.9200 137.2800
232.3200 147.8400 216.4800
168.9600 168.9600 217.8000
154.4400 176.8800 172.9200
182.1600 187.4400 165.0000
154.4400 154.4400 105.6000
168.9600 147.8400 207.2400
183.4800 163.6800 96.3600
105.6000 180.8400 209.8800
166.3200 139.9200 207.2400
113.5200 133.3200 187.4400
196.6800 147.8400 238.9200
106.9200 205.9200 192.7200
143.8800 149.1600 187.4400
219.1200 165.0000 221.7600
236.2800 151.8000 203.2800
150.4800 158.4000 211.2000
207.2400 139.9200 200.6400
194.0400 151.8000 192.7200
213.8400 142.5600 211.2000
188.7600 150.4800 228.3600
199.3200 154.4400 225.7200
180.8400 147.8400 203.2800
208.5600 126.7200 198.0000
204.6000 154.4400 223.0800
158.4000 179.5200 161.0400
192.7200 167.6400 227.0400
133.3200 163.6800 157.0800
176.8800 174.2400 194.0400
188.7600 157.0800 109.5600
178.2000 184.8000 161.0400
113.5200 220.4400 195.3600
105.6000 240.2400 157.0800
216.4800 134.6400 219.1200
134.6400 168.9600 133.3200
142.5600 187.4400 172.9200
145.2000 190.0800 172.9200
128.0400 227.0400 201.9600
106.9200 236.2800 155.7600
146.5200 168.9600 134.6400
100.3200 223.0800 166.3200
155.7600 121.4400 159.7200
151.8000 211.2000 146.5200
159.7200 133.3200 162.3600
145.2000 118.8000 154.4400
176.8800 171.6000 194.0400
154.4400 231.0000 163.6800
224.4000 145.2000 204.6000
147.8400 228.3600 162.3600
220.4400 120.1200 190.0800
109.5600 209.8800 183.4800
95.0400 200.6400 150.4800
186.1200 166.3200 198.0000
216.4800 149.1600 203.2800
172.9200 187.4400 220.4400
130.6800 175.5600 150.4800
225.7200 130.6800 229.6800
234.9600 147.8400 231.0000
110.8800 209.8800 167.6400
219.1200 113.5200 192.7200
153.1200 172.9200 186.1200
118.8000 141.2400 168.9600
208.5600 150.4800 224.4000
190.0800 195.3600 126.7200
117.4800 221.7600 186.1200
100.3200 205.9200 171.6000
233.6400 159.7200 212.5200
170.2800 211.2000 118.8000
162.3600 137.2800 153.1200
192.7200 153.1200 208.5600
161.0400 163.6800 191.4000
124.0800 109.5600 180.8400
216.4800 129.3600 209.8800
209.8800 180.8400 158.4000
125.4000 154.4400 176.8800
199.3200 180.8400 204.6000
159.7200 161.0400 159.7200
219.1200 146.5200 228.3600
126.7200 117.4800 145.2000
199.3200 124.0800 199.3200
221.7600 159.7200 220.4400
104.2800 134.6400 195.3600
158.4000 163.6800 118.8000
162.3600 194.0400 158.4000
153.1200 190.0800 174.2400
126.7200 110.8800 159.7200
155.7600 139.9200 212.5200
106.9200 155.7600 199.3200
121.4400 166.3200 101.6400
217.8000 162.3600 204.6000
201.9600 200.6400 149.1600
142.5600 155.7600 186.1200
182.1600 134.6400 207.2400
172.9200 163.6800 205.9200
191.4000 179.5200 97.6800
88.4400 211.2000 155.7600
200.6400 154.4400 130.6800
151.8000 159.7200 200.6400
155.7600 194.0400 172.9200
162.3600 137.2800 212.5200
114.8400 182.1600 151.8000
137.2800 186.1200 151.8000
155.7600 174.2400 175.5600
157.0800 234.9600 158.4000
234.9600 146.5200 221.7600
174.2400 171.6000 217.8000
162.3600 137.2800 154.4400
112.2000 155.7600 204.6000
161.0400 184.8000 211.2000
172.9200 149.1600 134.6400
157.0800 227.0400 184.8000
187.4400 145.2000 129.3600
139.9200 155.7600 182.1600
161.0400 172.9200 151.8000
198.0000 135.9600 191.4000
159.7200 199.3200 184.8000
227.0400 134.6400 227.0400
116.1600 201.9600 205.9200
187.4400 153.1200 183.4800
174.2400 183.4800 205.9200
135.9600 171.6000 149.1600
199.3200 196.6800 149.1600
186.1200 171.6000 167.6400
213.8400 158.4000 201.9600
184.8000 171.6000 161.0400
175.5600 227.0400 109.5600
219.1200 138.6000 232.3200
191.4000 168.9600 141.2400
199.3200 145.2000 192.7200
161.0400 176.8800 192.7200
170.2800 121.4400 122.7600
170.2800 125.4000 128.0400
158.4000 232.3200 154.4400
211.2000 134.6400 215.1600
176.8800 141.2400 105.6000
165.0000 166.3200 150.4800
195.3600 161.0400 124.0800
113.5200 120.1200 153.1200
199.3200 168.9600 117.4800
192.7200 162.3600 186.1200
166.3200 232.3200 138.6000
106.9200 195.3600 172.9200
209.8800 145.2000 180.8400
126.7200 178.2000 170.2800
199.3200 149.1600 195.3600
192.7200 130.6800 223.0800
141.2400 175.5600 124.0800
224.4000 138.6000 211.2000
172.9200 146.5200 137.2800
183.4800 159.7200 142.5600
139.9200 178.2000 129.3600
171.6000 207.2400 171.6000
232.3200 124.0800 188.7600
204.6000 170.2800 133.3200
205.9200 155.7600 220.4400
129.3600 174.2400 120.1200
184.8000 191.4000 174.2400
175.5600 176.8800 170.2800
141.2400 154.4400 151.8000
172.9200 179.5200 190.0800
208.5600 129.3600 192.7200
166.3200 180.8400 198.0000
182.1600 130.6800 204.6000
223.0800 159.7200 207.2400
228.3600 141.2400 188.7600
114.8400 141.2400 186.1200
223.0800 124.0800 194.0400
198.0000 121.4400 208.5600
201.9600 150.4800 219.1200
234.9600 149.1600 216.4800
162.3600 159.7200 208.5600
174.2400 167.6400 124.0800
203.2800 146.5200 233.6400
237.6000 143.8800 223.0800
212.5200 142.5600 232.3200
163.6800 225.7200 170.2800
242.8800 142.5600 208.5600
198.0000 155.7600 231.0000
190.0800 145.2000 212.5200
153.1200 207.2400 143.8800
186.1200 182.1600 135.9600
180.8400 225.7200 157.0800
139.9200 142.5600 125.4000
176.8800 180.8400 199.3200
180.8400 187.4400 220.4400
198.0000 154.4400 209.8800
154.4400 174.2400 151.8000
130.6800 161.0400 109.5600
232.3200 153.1200 201.9600
199.3200 158.4000 232.3200
166.3200 233.6400 174.2400
200.6400 166.3200 109.5600
151.8000 150.4800 167.6400
112.2000 142.5600 174.2400
155.7600 151.8000 130.6800
171.6000 184.8000 130.6800
224.4000 135.9600 199.3200
176.8800 174.2400 145.2000
195.3600 145.2000 231.0000
201.9600 180.8400 208.5600
135.9600 175.5600 157.0800
153.1200 182.1600 195.3600
157.0800 151.8000 110.8800
168.9600 194.0400 110.8800
141.2400 166.3200 204.6000
188.7600 134.6400 201.9600
203.2800 170.2800 121.4400
229.6800 150.4800 195.3600
145.2000 179.5200 182.1600
186.1200 154.4400 135.9600
162.3600 213.8400 116.1600
91.0800 199.3200 159.7200
198.0000 178.2000 224.4000
132.0000 161.0400 161.0400
198.0000 187.4400 150.4800
213.8400 124.0800 200.6400
179.5200 168.9600 125.4000
174.2400 207.2400 162.3600
151.8000 191.4000 163.6800
180.8400 128.0400 141.2400
175.5600 153.1200 216.4800
200.6400 129.3600 203.2800
178.2000 190.0800 109.5600
138.6000 191.4000 163.6800
126.7200 162.3600 159.7200
161.0400 137.2800 147.8400
203.2800 183.4800 122.7600
153.1200 199.3200 182.1600
233.6400 170.2800 194.0400
122.7600 184.8000 187.4400
163.6800 182.1600 188.7600
154.4400 125.4000 118.8000
179.5200 179.5200 227.0400
171.6000 196.6800 143.8800
241.5600 141.2400 204.6000
151.8000 150.4800 117.4800
219.1200 113.5200 203.2800
199.3200 143.8800 229.6800
184.8000 138.6000 108.2400
171.6000 143.8800 154.4400
232.3200 126.7200 203.2800
162.3600 146.5200 187.4400
128.0400 192.7200 195.3600
106.9200 155.7600 176.8800
114.8400 201.9600 149.1600
95.0400 241.5600 145.2000
171.6000 153.1200 194.0400
217.8000 166.3200 216.4800
234.9600 155.7600 221.7600
188.7600 168.9600 145.2000
196.6800 183.4800 199.3200
126.7200 118.8000 150.4800
183.4800 190.0800 146.5200
187.4400 194.0400 165.0000
190.0800 145.2000 191.4000
133.3200 122.7600 174.2400
242.8800 142.5600 200.6400
174.2400 163.6800 207.2400
92.4000 190.0800 166.3200
216.4800 130.6800 195.3600
199.3200 215.1600 159.7200
203.2800 192.7200 113.5200
159.7200 223.0800 204.6000
106.9200 176.8800 188.7600
172.9200 154.4400 199.3200
118.8000 219.1200 195.3600
171.6000 146.5200 212.5200
179.5200 183.4800 217.8000
142.5600 182.1600 198.0000
163.6800 192.7200 128.0400
130.6800 170.2800 132.0000
106.9200 153.1200 184.8000
200.6400 149.1600 208.5600
135.9600 224.4000 155.7600
162.3600 180.8400 168.9600
211.2000 139.9200 203.2800
188.7600 143.8800 129.3600
201.9600 137.2800 229.6800
154.4400 196.6800 187.4400
172.9200 238.9200 153.1200
158.4000 191.4000 125.4000
174.2400 142.5600 145.2000
157.0800 166.3200 166.3200
97.6800 220.4400 165.0000
228.3600 170.2800 219.1200
126.7200 219.1200 207.2400
154.4400 150.4800 133.3200
186.1200 150.4800 108.2400
100.3200 176.8800 198.0000
216.4800 133.3200 190.0800
147.8400 190.0800 179.5200
232.3200 142.5600 229.6800
204.6000 182.1600 190.0800
126.7200 147.8400 163.6800
186.1200 198.0000 146.5200
172.9200 157.0800 227.0400
196.6800 142.5600 203.2800
211.2000 175.5600 133.3200
190.0800 161.0400 135.9600
179.5200 192.7200 161.0400
105.6000 192.7200 172.9200
139.9200 186.1200 155.7600
176.8800 211.2000 155.7600
172.9200 134.6400 215.1600
120.1200 120.1200 163.6800
205.9200 175.5600 142.5600
201.9600 132.0000 227.0400
194.0400 168.9600 200.6400
232.3200 166.3200 224.4000
125.4000 224.4000 196.6800
183.4800 194.0400 220.4400
138.6000 110.8800 151.8000
198.0000 150.4800 217.8000
184.8000 170.2800 141.2400
125.4000 172.9200 149.1600
190.0800 196.6800 105.6000
203.2800 183.4800 208.5600
133.3200 163.6800 167.6400
212.5200 137.2800 213.8400
191.4000 143.8800 192.7200
130.6800 142.5600 180.8400
134.6400 110.8800 154.4400
105.6000 204.6000 191.4000
114.8400 159.7200 84.4800
196.6800 168.9600 213.8400
151.8000 183.4800 168.9600
221.7600 128.0400 208.5600
117.4800 116.1600 170.2800
118.8000 227.0400 179.5200
159.7200 209.8800 130.6800
187.4400 192.7200 167.6400
161.0400 198.0000 183.4800
161.0400 159.7200 200.6400
182.1600 183.4800 216.4800
153.1200 162.3600 133.3200
153.1200 184.8000 170.2800
151.8000 180.8400 172.9200
216.4800 151.8000 216.4800
225.7200 149.1600 196.6800
159.7200 182.1600 114.8400
158.4000 224.4000 145.2000
188.7600 176.8800 201.9600
159.7200 167.6400 120.1200
100.3200 190.0800 166.3200
135.9600 161.0400 170.2800
187.4400 166.3200 217.8000
208.5600 128.0400 192.7200
225.7200 150.4800 227.0400
172.9200 172.9200 150.4800
225.7200 166.3200 211.2000
157.0800 141.2400 205.9200
161.0400 145.2000 102.9600
128.0400 116.1600 158.4000
183.4800 137.2800 120.1200
97.6800 220.4400 167.6400
190.0800 153.1200 134.6400
221.7600 159.7200 204.6000
170.2800 186.1200 172.9200
167.6400 158.4000 155.7600
172.9200 145.2000 188.7600
178.2000 159.7200 155.7600
184.8000 215.1600 161.0400
219.1200 168.9600 213.8400
162.3600 192.7200 138.6000
171.6000 162.3600 132.0000
101.6400 208.5600 172.9200
155.7600 150.4800 125.4000
158.4000 165.0000 114.8400
132.0000 172.9200 147.8400
183.4800 196.6800 176.8800
194.0400 165.0000 231.0000
161.0400 163.6800 129.3600
165.0000 221.7600 151.8000
180.8400 154.4400 203.2800
174.2400 154.4400 219.1200
168.9600 204.6000 153.1200
146.5200 191.4000 146.5200
154.4400 200.6400 199.3200
114.8400 178.2000 200.6400
224.4000 157.0800 204.6000
216.4800 116.1600 209.8800
122.7600 205.9200 187.4400
161.0400 191.4000 158.4000
133.3200 172.9200 130.6800
162.3600 180.8400 170.2800
167.6400 170.2800 121.4400
171.6000 147.8400 109.5600
216.4800 110.8800 191.4000
190.0800 187.4400 135.9600
194.0400 151.8000 128.0400
180.8400 225.7200 139.9200
213.8400 110.8800 195.3600
166.3200 151.8000 205.9200
170.2800 171.6000 139.9200
162.3600 134.6400 109.5600
175.5600 179.5200 200.6400
133.3200 170.2800 126.7200
143.8800 207.2400 150.4800
215.1600 137.2800 225.7200
153.1200 191.4000 141.2400
158.4000 236.2800 138.6000
166.3200 155.7600 217.8000
96.3600 242.8800 145.2000
200.6400 143.8800 207.2400
151.8000 141.2400 120.1200
125.4000 134.6400 146.5200
126.7200 139.9200 191.4000
201.9600 179.5200 216.4800
213.8400 139.9200 190.0800
199.3200 168.9600 129.3600
168.9600 182.1600 159.7200
195.3600 186.1200 104.2800
183.4800 137.2800 200.6400
227.0400 168.9600 224.4000
179.5200 125.4000 134.6400
126.7200 212.5200 176.8800
132.0000 149.1600 166.3200
188.7600 168.9600 215.1600
219.1200 162.3600 217.8000
174.2400 147.8400 138.6000
120.1200 138.6000 163.6800
242.8800 139.9200 200.6400
130.6800 176.8800 129.3600
159.7200 175.5600 124.0800
195.3600 151.8000 231.0000
133.3200 180.8400 133.3200
190.0800 167.6400 225.7200
133.3200 191.4000 176.8800
179.5200 132.0000 208.5600
166.3200 183.4800 192.7200
179.5200 143.8800 132.0000
113.5200 168.9600 204.6000
168.9600 211.2000 150.4800
171.6000 211.2000 172.9200
135.9600 110.8800 168.9600
132.0000 220.4400 178.2000
225.7200 134.6400 216.4800
175.5600 133.3200 120.1200
179.5200 176.8800 135.9600
223.0800 108.2400 194.0400
158.4000 212.5200 199.3200
125.4000 159.7200 163.6800
126.7200 209.8800 168.9600
184.8000 191.4000 163.6800
104.2800 221.7600 170.2800
200.6400 122.7600 186.1200
157.0800 232.3200 154.4400
223.0800 129.3600 180.8400
167.6400 188.7600 211.2000
179.5200 166.3200 213.8400
113.5200 190.0800 215.1600
201.9600 147.8400 216.4800
194.0400 179.5200 105.6000
186.1200 194.0400 100.3200
187.4400 216.4800 145.2000
161.0400 162.3600 192.7200
168.9600 162.3600 217.8000
95.0400 219.1200 165.0000
200.6400 135.9600 229.6800
194.0400 137.2800 225.7200
150.4800 219.1200 138.6000
178.2000 171.6000 135.9600
162.3600 134.6400 110.8800
200.6400 146.5200 199.3200
174.2400 145.2000 209.8800
219.1200 159.7200 201.9600
151.8000 208.5600 129.3600
187.4400 190.0800 147.8400
219.1200 159.7200 216.4800
190.0800 166.3200 171.6000
162.3600 182.1600 212.5200
183.4800 133.3200 139.9200
188.7600 166.3200 174.2400
147.8400 122.7600 139.9200
96.3600 205.9200 151.8000
238.9200 146.5200 212.5200
162.3600 158.4000 155.7600
200.6400 174.2400 220.4400
183.4800 179.5200 129.3600
153.1200 204.6000 186.1200
199.3200 178.2000 216.4800
147.8400 178.2000 114.8400
229.6800 137.2800 229.6800
132.0000 182.1600 112.2000
179.5200 143.8800 203.2800
138.6000 153.1200 172.9200
165.0000 172.9200 151.8000
93.7200 236.2800 155.7600
154.4400 223.0800 191.4000
220.4400 135.9600 215.1600
142.5600 229.6800 163.6800
208.5600 108.2400 182.1600
158.4000 190.0800 116.1600
129.3600 201.9600 201.9600
182.1600 225.7200 150.4800
216.4800 110.8800 201.9600
228.3600 114.8400 194.0400
149.1600 151.8000 134.6400
188.7600 219.1200 122.7600
161.0400 170.2800 114.8400
234.9600 137.2800 216.4800
165.0000 174.2400 120.1200
172.9200 170.2800 150.4800
220.4400 120.1200 180.8400
151.8000 153.1200 179.5200
166.3200 151.8000 122.7600
183.4800 162.3600 168.9600
112.2000 147.8400 184.8000
194.0400 174.2400 99.0000
179.5200 155.7600 205.9200
146.5200 166.3200 171.6000
244.2000 128.0400 204.6000
141.2400 200.6400 174.2400
146.5200 175.5600 142.5600
130.6800 155.7600 183.4800
168.9600 154.4400 196.6800
219.1200 137.2800 195.3600
240.2400 150.4800 203.2800
150.4800 151.8000 122.7600
192.7200 149.1600 209.8800
199.3200 176.8800 134.6400
187.4400 170.2800 227.0400
188.7600 161.0400 220.4400
112.2000 126.7200 182.1600
158.4000 143.8800 212.5200
88.4400 237.6000 141.2400
162.3600 171.6000 225.7200
154.4400 149.1600 125.4000
237.6000 161.0400 196.6800
133.3200 168.9600 128.0400
227.0400 114.8400 199.3200
216.4800 128.0400 200.6400
179.5200 183.4800 166.3200
172.9200 211.2000 150.4800
151.8000 157.0800 167.6400
198.0000 166.3200 151.8000
109.5600 137.2800 182.1600
178.2000 161.0400 192.7200
157.0800 187.4400 145.2000
182.1600 191.4000 153.1200
225.7200 116.1600 182.1600
158.4000 125.4000 142.5600
146.5200 174.2400 122.7600
203.2800 176.8800 126.7200
219.1200 134.6400 190.0800
201.9600 212.5200 211.2000
102.9600 195.3600 175.5600
190.0800 157.0800 104.2800
228.3600 166.3200 216.4800
157.0800 151.8000 192.7200
203.2800 159.7200 217.8000
217.8000 135.9600 208.5600
182.1600 194.0400 176.8800
174.2400 227.0400 129.3600
203.2800 124.0800 188.7600
105.6000 227.0400 163.6800
116.1600 211.2000 183.4800
215.1600 113.5200 199.3200
170.2800 208.5600 141.2400
176.8800 180.8400 204.6000
134.6400 166.3200 108.2400
188.7600 180.8400 135.9600
125.4000 191.4000 190.0800
174.2400 180.8400 208.5600
143.8800 203.2800 141.2400
104.2800 208.5600 175.5600
132.0000 170.2800 137.2800
195.3600 227.0400 142.5600
163.6800 158.4000 100.3200
171.6000 159.7200 224.4000
175.5600 175.5600 121.4400
195.3600 167.6400 213.8400
198.0000 139.9200 211.2000
